129	3
0.06299	0.05858	-0.03262
0.05694	0.07223	-0.00188
0.03931	0.07908	0.02579
0.02901	0.07464	0.04529
0.01531	0.06227	0.06597
-0.00000	0.04469	0.08042
-0.01321	0.02130	0.08852
0.04235	0.07942	-0.01905
0.02657	0.08794	0.00490
0.01790	0.08658	0.02544
-0.00000	0.08068	0.04421
-0.01532	0.06227	0.06597
-0.02637	0.03925	0.07892
0.01213	0.08996	-0.01496
-0.00000	0.09171	0.00733
-0.00000	0.08879	0.02409
-0.00000	0.08792	-0.02710
-0.01790	0.08658	0.02544
-0.02901	0.07464	0.04529
-0.04078	0.05764	0.05898
-0.01213	0.08996	-0.01496
-0.02657	0.08794	0.00490
-0.03931	0.07908	0.02579
-0.04770	0.06661	0.04185
-0.04235	0.07942	-0.01905
-0.05694	0.07223	-0.00188
-0.06280	0.06172	0.02667
-0.06181	0.04881	0.04755
-0.05321	0.03357	0.06712
-0.04048	0.01464	0.08131
-0.02075	-0.00276	0.08959
-0.06299	0.05858	-0.03262
-0.07713	0.04942	-0.00855
-0.08064	0.03643	0.02519
-0.07349	0.01972	0.05171
-0.06068	0.00664	0.06883
-0.04137	-0.01200	0.08129
-0.07296	0.03827	-0.04095
-0.09045	0.01008	-0.01347
-0.08882	0.00163	0.02394
-0.07696	-0.00640	0.05000
-0.06317	-0.02164	0.06328
-0.06812	0.02245	-0.05762
-0.07983	0.01279	-0.04390
-0.08868	-0.02305	-0.00829
-0.08426	-0.02512	0.02707
-0.07372	-0.03067	0.04569
-0.05315	0.01634	-0.07329
-0.06541	0.00114	-0.06469
-0.07905	-0.04701	-0.00209
-0.07134	-0.04925	0.03080
-0.06102	-0.04443	0.05260
-0.04298	-0.03779	0.07203
-0.02312	-0.03059	0.08363
-0.00000	-0.01757	0.09031
-0.06448	-0.02862	-0.05905
-0.07391	-0.04366	-0.03310
-0.06660	-0.06344	0.00212
-0.05473	-0.06609	0.03318
-0.04212	-0.05922	0.05641
-0.02364	-0.05168	0.07235
0.00000	-0.06357	0.06650
-0.05482	-0.04709	-0.05693
-0.05825	-0.06479	-0.02956
-0.04950	-0.07746	0.00369
-0.03697	-0.07689	0.03443
-0.01861	-0.07149	0.05484
-0.03788	-0.06665	-0.05086
-0.03653	-0.08009	-0.02673
-0.02791	-0.08750	0.00531
-0.01420	-0.08353	0.03584
0.00000	-0.07718	0.05008
-0.01895	-0.07607	-0.04815
-0.01156	-0.08801	-0.02417
0.00000	-0.09165	0.00807
0.01419	-0.08353	0.03584
0.01861	-0.07149	0.05484
0.02364	-0.05168	0.07235
0.02310	-0.03058	0.08364
0.02075	-0.00276	0.08959
0.00000	-0.07959	-0.04614
0.01154	-0.08802	-0.02417
0.02791	-0.08750	0.00531
0.03697	-0.07689	0.03443
0.04211	-0.05923	0.05641
0.04298	-0.03780	0.07203
0.04137	-0.01200	0.08129
0.01894	-0.07607	-0.04815
0.03652	-0.08010	-0.02673
0.04950	-0.07746	0.00369
0.05473	-0.06609	0.03318
0.06102	-0.04443	0.05260
0.06317	-0.02164	0.06328
0.03788	-0.06665	-0.05086
0.05825	-0.06479	-0.02956
0.06658	-0.06345	0.00212
0.07134	-0.04925	0.03080
0.07372	-0.03067	0.04569
0.05482	-0.04709	-0.05693
0.07390	-0.04367	-0.03310
0.07905	-0.04701	-0.00209
0.08426	-0.02512	0.02708
0.07695	-0.00639	0.05001
0.06068	0.00664	0.06883
0.04047	0.01463	0.08131
0.01320	0.02131	0.08852
0.06448	-0.02862	-0.05905
0.08868	-0.02305	-0.00829
0.08882	0.00163	0.02394
0.07348	0.01972	0.05172
0.05320	0.03357	0.06713
0.02637	0.03925	0.07892
0.06541	0.00114	-0.06469
0.07983	0.01279	-0.04390
0.09045	0.01008	-0.01347
0.08064	0.03643	0.02519
0.06181	0.04881	0.04755
0.04078	0.05764	0.05898
0.05315	0.01634	-0.07329
0.06812	0.02245	-0.05762
0.07296	0.03827	-0.04095
0.07713	0.04942	-0.00855
0.06280	0.06172	0.02667
0.04769	0.06662	0.04185
0.06345	0.04454	-0.04954
0.03396	0.05726	-0.06350
-0.03396	0.05726	-0.06350
-0.06345	0.04454	-0.04954
-0.00000	0.00462	0.09188
